ply
format ascii 1.0
element vertex 986
property float x
property float y
property float z
end_header
0.920350 -1.168313 3.466458
0.015442 -0.175471 7.417977
-0.137440 -0.177114 7.487441
-0.011088 0.081501 0.474839
-0.014866 0.079650 0.471543
0.012362 0.110300 0.396882
0.012505 0.109384 0.401461
0.225267 -0.653901 3.528112
0.452252 -0.653714 2.889783
0.483839 0.069643 2.844015
0.455894 0.070113 2.863201
1.371421 -0.209891 7.691627
1.426404 -0.261906 8.000000
1.700316 -0.859431 4.261141
1.591171 -0.815678 4.099601
1.843425 -0.721050 4.409017
2.833315 -1.111509 6.911731
1.892835 -0.133270 4.440371
3.453830 -0.283706 8.000000
3.868034 -0.915914 8.000000
3.264295 -0.841800 6.713488
3.824434 -0.283706 8.000000
4.310461 -1.086440 7.971558
4.260440 -1.112117 8.000000
-0.133629 0.071465 0.254648
-0.133096 0.070902 0.257647
-0.135257 0.069889 0.259097
-0.060420 0.072072 0.318707
-0.058085 0.071741 0.325078
1.768392 -0.846055 4.372030
1.812115 -0.867999 4.362563
1.777575 -0.868549 4.365326
-0.120571 0.072929 0.254917
-0.121586 0.072982 0.252695
-0.071736 0.072884 0.297223
-0.070923 0.072903 0.300642
-0.074401 0.061455 0.410138
-0.054332 0.044036 0.394275
0.471059 -0.649003 2.768895
0.455544 -0.742795 2.962399
1.365255 -0.501773 4.843875
2.320215 -1.003115 8.000000
1.082801 -0.848960 3.664588
1.111042 -0.925752 3.692063
1.826182 -0.952871 4.425462
3.083225 -1.787925 8.000000
3.562831 -0.894114 8.000000
3.519230 -0.981315 8.000000
3.475630 -1.090316 8.000000
2.967358 -0.999242 6.916859
-0.134031 0.072580 0.248952
-0.137002 0.072357 0.248189
-0.120856 0.068483 0.276207
-0.121878 0.068540 0.273432
-0.107332 0.075193 0.253182
-0.112774 0.075142 0.248451
-0.059855 -0.081687 0.434354
-0.052980 -0.087213 0.426646
0.455476 -0.643882 2.812441
0.478713 -0.661364 2.726536
0.633904 -0.746562 3.043580
0.493499 -0.676123 2.726127
0.752907 -0.766699 3.196700
0.779060 -0.818987 3.196783
0.712992 -0.813183 3.174129
2.666683 -1.067580 7.992996
2.603619 -1.112117 8.000000
2.529145 -1.173308 7.971403
3.148626 -1.351919 8.000000
1.874482 -0.719137 4.397316
3.606431 -1.417320 8.000000
1.842136 -0.737342 4.293987
-0.110744 0.072825 0.264633
-0.106979 0.071768 0.271549
-0.112766 0.070669 0.273020
-0.102944 0.069877 0.284961
-0.106774 0.070631 0.278743
-0.107000 0.068081 0.293970
-0.092259 -0.045213 0.436463
-0.087121 -0.050937 0.434565
-0.063413 0.071641 0.320664
2.734421 -1.700724 8.000000
1.131290 -0.714053 3.447191
1.307291 -0.865051 3.918415
2.538218 -1.744324 8.000000
3.562831 -0.283706 8.000000
3.120463 -0.262751 6.880404
-0.088964 0.069815 0.297955
-0.094189 0.065320 0.315456
-1.887237 -0.174705 8.000000
-2.170641 -0.283706 8.000000
-0.111298 -0.673078 3.249379
-0.129541 -0.675861 3.262817
-0.022777 -0.399036 3.253072
-0.022754 -0.451761 3.249739
0.004141 0.173787 0.442918
0.005368 0.214354 0.574228
0.009230 -0.193224 7.866434
0.031186 -0.240106 8.000000
1.557206 -2.158530 8.000000
0.454197 -0.788891 2.953640
1.404604 -1.308319 8.000000
0.695583 -0.723472 3.961730
0.849267 -0.918944 3.371762
0.659415 -0.821992 3.046488
1.456881 -0.072016 5.270883
1.998420 -0.201266 7.375557
1.405709 -0.779441 4.846824
1.273323 -0.715203 3.695851
-0.098468 0.081856 0.229325
-0.107478 0.077342 0.242610
-0.111310 0.078038 0.236699
-0.017338 0.077925 0.468894
0.009387 -1.504521 8.000000
1.196383 -0.212304 7.780080
-0.079631 0.068568 0.322648
-0.087816 0.067017 0.323650
1.426404 -0.959515 8.000000
0.506885 -0.420774 3.355740
1.404604 -1.090316 8.000000
0.442731 -0.384543 2.879081
0.940351 -0.831282 3.505808
1.431207 -0.845069 4.026718
2.799822 -1.918727 8.000000
3.000797 -1.107606 6.349493
4.391241 -0.915914 8.000000
3.933435 -1.090316 8.000000
-0.115980 0.069166 0.278960
-0.125278 0.072727 0.251810
-0.111844 0.072853 0.262140
-0.121072 0.071969 0.258959
2.407416 -1.766125 8.000000
0.504304 -0.618449 2.872290
1.570678 -0.827825 4.104436
-0.067649 -0.670412 3.279655
-0.092238 -0.042374 0.420113
2.912303 -1.006978 7.104420
3.186968 -0.233336 7.774452
2.103137 -0.199758 7.320303
4.369441 -0.305506 8.000000
0.234389 -0.395840 3.025386
2.189414 -1.024916 8.000000
1.300428 -1.200407 3.897846
-0.056639 0.077544 0.290411
-0.065874 0.075546 0.285844
-0.111510 0.080783 0.222917
0.004907 0.115636 0.331557
-0.041091 0.044838 3.299986
-0.060158 0.007845 0.412101
-0.033095 0.076284 0.341444
0.339755 -0.729967 3.009355
0.920444 -1.162135 3.466813
-0.142095 -0.194968 7.937430
-0.134052 -0.006950 0.318258
-0.113105 0.069454 0.280126
-0.113659 0.068137 0.286133
-0.102632 0.072722 0.271795
-0.105380 0.071019 0.279075
-0.086611 0.074226 0.277416
-0.089313 0.074510 0.271835
-0.096806 0.071183 0.283359
-0.092697 0.069970 0.293833
-0.088508 0.068623 0.309419
-0.091037 0.066137 0.321943
-0.088391 0.070367 0.295497
0.449649 -0.745896 2.955493
0.448923 -0.783287 2.950721
1.371421 -0.205698 7.691627
0.710673 -0.810781 3.171500
0.652274 -0.818044 3.044155
1.069266 -0.850132 3.652464
1.115630 -0.918522 3.687276
1.767796 -0.861222 4.376456
1.963156 -0.779051 4.397318
3.519231 -0.972595 8.000000
3.466910 -1.077236 8.000000
2.960070 -1.001878 6.935112
3.937796 -1.077236 8.000000
4.304040 -1.077236 8.000000
4.251720 -1.103396 8.000000
-0.132908 -0.006442 0.318841
-0.135508 -0.005257 0.310465
-0.085766 0.068656 0.314201
-0.078645 0.068452 0.322933
-0.086864 0.067219 0.322083
-0.079291 0.066364 0.339251
-0.077330 0.064937 0.355745
-0.081366 0.064685 0.348127
-0.062623 0.067621 0.351551
-0.066492 0.066894 0.353788
-0.072760 0.064886 0.361945
0.455526 -0.636289 2.812753
0.425157 -0.655386 2.855889
0.623016 -0.759055 3.047117
0.477906 -0.662305 2.730415
1.403068 -0.779441 4.846824
1.296283 -0.870504 3.904557
2.551299 -1.731244 8.000000
2.838576 -1.098229 6.970903
3.126826 -1.338839 8.000000
3.833155 -0.292426 8.000000
3.833155 -0.344747 8.000000
3.124020 -0.274643 6.896535
-0.101738 0.070463 0.284195
-0.103759 0.069020 0.289842
-0.107088 0.068723 0.288595
2.671626 -1.073029 7.968759
2.534284 -1.173995 7.946647
3.545391 -0.292426 8.000000
2.943195 -0.184409 6.895576
3.545391 -0.344747 8.000000
1.850976 -0.708247 4.404112
1.876352 -0.758644 4.362659
-0.113276 0.082979 0.217216
-0.122394 0.068896 0.274255
-1.849118 -0.157632 7.802361
-2.157560 -0.292426 8.000000
-0.048573 0.083144 0.283072
-0.057346 0.077588 0.289984
-0.055930 0.072288 0.325946
-0.060409 0.071477 0.327113
-0.015709 -0.396085 3.257966
-0.015697 -0.459647 3.255412
0.012746 -0.174123 7.417977
0.039907 -0.240106 8.000000
0.931661 -0.836270 3.494710
0.747757 -0.765036 3.197029
1.456882 -0.072016 5.270883
1.396647 -0.130500 4.879764
-0.124777 0.073167 0.251908
-0.133623 0.072602 0.249964
-0.133296 0.070898 0.255607
-0.107122 0.077349 0.241806
-0.113934 0.075558 0.246276
1.184711 -0.208248 7.786969
1.426404 -0.920274 8.000000
1.426404 -1.103396 8.000000
0.437863 -0.387539 2.878024
-0.089987 0.076633 0.260903
-0.081650 0.074667 0.279065
-0.072912 0.073247 0.295424
-0.078211 0.062621 0.376802
1.426404 -1.312679 8.000000
0.586525 -0.685118 3.939840
0.495564 -0.520125 2.831303
0.562092 -0.705965 3.775717
3.253191 -0.775740 6.743560
-0.111443 0.073304 0.261201
-0.121082 0.073424 0.252793
-0.110314 0.072832 0.262580
-0.120715 0.071867 0.259102
2.394336 -1.783565 8.000000
1.275337 -0.715203 3.695851
0.494814 -0.611782 2.827016
1.854856 -0.046227 4.447950
3.000797 -1.104145 6.349493
-0.047665 -0.651698 3.257589
-0.111298 -0.671307 3.249379
-0.054513 -0.088098 0.433286
2.916176 -1.003106 7.104420
3.191207 -0.233336 7.774452
1.370743 -0.478086 4.844610
2.185054 -1.024915 8.000000
1.990381 -0.197245 7.375557
1.565414 -0.835308 4.108232
-0.072746 0.075810 0.279918
-0.064067 0.045821 0.335052
-0.011524 0.081436 0.471466
-0.047604 0.070359 0.359670
-0.054790 0.043628 0.394472
0.003825 0.173925 0.463217
0.012362 0.110083 0.396882
-0.037431 0.041172 3.294435
-0.060138 0.007699 0.404418
0.926824 -1.161616 3.476570
1.801263 -0.942138 4.353575
1.289649 -1.196319 3.884574
-0.124934 -0.006743 0.333749
-0.133925 -0.175604 7.481074
0.462293 0.063677 2.854532
-0.130837 -0.006234 0.318876
-0.135726 -0.006116 0.312841
-0.096366 0.071269 0.283702
-0.102048 0.070235 0.284023
-0.080651 0.074573 0.279397
-0.082548 0.072961 0.285970
-0.073634 0.075245 0.281914
-0.074341 0.073724 0.288962
0.595742 -0.697165 3.949697
0.554564 -0.710750 3.774900
1.371422 -0.210728 7.691627
0.626331 -0.764214 3.043854
0.664005 -0.814250 3.052321
0.910703 -0.849621 3.493222
2.828361 -1.120590 6.968199
2.958917 -0.188771 6.890179
3.278557 -0.250569 8.000000
3.280245 -0.843057 6.717676
3.937797 -1.098164 8.000000
-0.103760 0.072014 0.273836
-0.106152 0.070376 0.280147
-0.045458 -0.650616 3.252180
-0.095955 -0.672287 3.233651
-0.006958 -0.668235 3.154619
1.120420 -0.838917 3.687166
1.063360 -0.856852 3.640420
1.689752 -0.849255 4.245102
1.583780 -0.820254 4.100134
2.896548 -1.084687 6.744946
2.832562 -1.111509 6.911731
0.457468 -0.629070 2.813377
0.426111 -0.653856 2.825068
0.471965 -0.651720 2.768895
3.050104 -0.867572 6.913013
3.487969 -1.094920 7.976367
2.911052 -1.030814 7.103252
-0.095674 -0.037546 0.416334
-0.096627 -0.033477 0.406595
-0.019971 -0.396085 3.257966
-0.019952 -0.472354 3.254948
-0.022163 0.075202 0.416451
-0.028318 0.185641 1.099733
0.511543 -0.679160 2.748036
0.458411 -0.755324 2.962146
2.661309 -1.089651 7.937985
2.179822 -1.035379 8.000000
2.554556 -1.176968 7.896852
1.416141 -0.779658 4.848171
1.365966 -0.095258 4.872780
2.109521 -0.200555 7.320303
1.561308 -0.517505 4.550450
2.907231 -1.011307 7.162510
-0.125943 0.072661 0.253592
-0.134819 0.070677 0.257238
-0.137428 -0.002317 0.297903
1.457797 -0.909810 8.000000
1.457797 -1.129556 8.000000
0.506066 -0.434233 3.355158
1.202952 -0.212963 7.773202
0.745745 -0.777662 3.197364
0.783242 -0.815154 3.196783
1.773799 -0.857111 4.370089
3.875012 -0.909810 8.000000
-0.089857 0.074217 0.274036
-0.093087 0.071052 0.287326
1.457797 -1.317911 8.000000
0.695848 -0.719492 3.902668
1.313290 -0.732234 3.660158
1.854983 -0.069395 4.441291
3.561087 -0.313354 8.000000
3.592480 -1.443480 8.000000
2.587924 -1.726012 8.000000
1.317770 -0.894296 3.930562
3.561087 -0.909810 8.000000
-0.121408 0.071699 0.260956
-0.120384 0.068616 0.277477
-0.121200 0.067854 0.274394
-0.092971 0.074344 0.270581
0.512222 -0.619811 2.872802
0.476068 -0.664018 2.730115
-2.152328 -0.281962 8.000000
-0.052138 -0.087521 0.420970
3.247164 -0.250569 8.000000
1.377080 -0.474917 4.844610
3.843619 -0.313354 8.000000
1.982396 -0.202239 7.381749
1.119114 -0.910199 3.682869
-0.057810 0.076625 0.291368
-0.096071 0.067994 0.303896
-0.063033 0.051467 0.344988
-0.054656 0.043062 0.391667
0.013340 0.110696 0.402891
0.000682 0.088855 0.397131
0.005493 0.214104 0.574228
-0.033062 0.038947 3.288476
-0.107293 0.074831 0.254202
-0.048311 0.083196 0.282620
-0.002487 0.084416 0.405757
0.334664 -0.741186 2.999006
0.936595 -1.163004 3.487552
1.286963 -1.203804 3.884133
0.012747 -0.174123 7.417977
0.045140 -1.506265 8.000000
-0.133925 -0.175604 7.481074
0.464055 0.056197 2.853890
0.005901 0.100281 0.391848
0.002214 0.093036 0.392420
2.906990 -1.033707 7.161917
1.849997 -0.697942 4.404522
2.828595 -1.104275 6.968776
-0.121408 0.071699 0.260956
-0.129758 0.070334 0.260451
-0.107477 0.077487 0.240760
-0.107869 0.074892 0.255091
-0.068558 0.070874 0.317880
-0.082425 0.068207 0.319411
-0.073464 0.075501 0.279585
-0.074568 0.073951 0.288962
-0.088424 -0.665294 3.236668
0.460298 0.058529 2.858377
0.507230 -0.681317 2.748036
1.476632 -0.928645 8.000000
0.490314 -0.434574 3.337555
1.114777 -0.914273 3.687645
1.042201 -0.862592 3.616570
1.115894 -0.845661 3.691340
1.541420 -0.526306 4.533967
2.671626 -1.075114 7.968759
1.683088 -0.852587 4.245102
3.548531 -0.890974 8.000000
3.473189 -1.079329 8.000000
3.250528 -0.752263 6.754523
3.925239 -1.079329 8.000000
-0.114121 0.075481 0.245293
-0.119447 0.074768 0.246751
-0.125453 0.072743 0.251810
-0.113841 0.071432 0.269214
-0.129823 -0.005461 0.317621
-0.137379 -0.002320 0.298304
-0.057618 0.076290 0.292715
-0.004996 0.086214 0.378686
-0.017333 0.080194 0.375547
1.476632 -1.305354 8.000000
0.554421 -0.691259 3.898902
1.382286 -0.204513 7.684906
1.145999 -0.207597 7.800785
0.741432 -0.778404 3.200412
0.620295 -0.770397 3.049416
1.360272 -0.083906 4.879791
1.956713 -0.196776 7.394154
1.569489 -0.824416 4.104836
1.313607 -0.718045 3.661043
2.958917 -0.183364 6.890179
2.825468 -0.185250 6.961073
-0.116534 -0.004187 0.335329
-0.125159 -0.007388 0.337295
-0.080643 0.074832 0.277109
-0.086337 0.073934 0.278641
-0.084143 0.070842 0.298805
0.579364 -0.677243 3.221011
0.471965 -0.647373 2.768895
0.419485 -0.654158 2.855421
0.011456 0.109695 0.392520
2.945501 -1.054572 6.858940
3.586202 -1.418367 8.000000
-0.092812 0.074386 0.270737
-0.103740 0.072345 0.272653
-0.101837 0.070329 0.285307
-0.108676 0.068566 0.289206
-0.081639 0.064503 0.348127
-0.054964 0.043062 0.391667
1.284060 -1.200892 3.884574
0.939332 -1.160267 3.487552
-0.052150 -0.084936 0.413218
1.768626 -0.767100 4.569385
2.553970 -1.147876 7.952924
3.849898 -0.325911 8.000000
-2.139771 -0.288240 8.000000
-0.027648 0.085801 0.312281
-0.034822 0.075625 0.339188
-0.108845 0.078601 0.233952
0.000365 0.089084 0.391291
-0.056992 0.071777 0.328876
-0.094806 0.068617 0.301393
0.004985 0.115880 0.330994
-0.027853 0.036305 3.282964
-0.048984 0.082988 0.282666
0.002955 -0.665560 3.165445
0.003073 -0.072090 3.291250
0.045140 -1.493708 8.000000
-0.169585 -0.164281 7.500214
-0.114633 0.000513 0.312900
3.556065 -0.883440 8.000000
3.465655 -1.064260 8.000000
3.230219 -0.745619 6.751962
3.917706 -1.064260 8.000000
-0.086413 0.074111 0.276365
-0.082691 0.071163 0.296624
-0.093890 0.068646 0.300279
-0.037881 0.068312 0.410405
-0.045356 0.066756 0.415146
-0.048891 0.065216 0.471906
0.698455 -0.717815 3.903542
0.563837 -0.714933 3.887870
0.478559 -0.666725 3.061290
1.168084 -0.130694 6.528217
0.959575 -0.132464 6.616628
1.476633 -0.295774 8.000000
0.495828 -0.650498 2.771096
0.397711 -0.653729 2.853551
0.444915 -0.776580 2.952809
1.093124 -0.903781 3.673234
2.064299 -1.968361 8.000000
1.730948 -0.126017 6.294604
2.133546 -0.187604 7.308139
1.951391 -0.189972 7.400378
2.579202 -1.142464 7.915429
3.058810 -1.335490 8.000000
2.946850 -1.058693 6.802408
2.878306 -1.066051 7.107742
2.853915 -1.105802 6.856171
-0.078128 0.064111 0.360675
-0.064584 0.046004 0.332883
-0.068858 0.070874 0.317880
-0.079076 0.068351 0.322933
-0.081817 0.064245 0.350294
1.850438 -0.088997 4.445443
3.510861 -0.340979 8.000000
3.194425 -0.250569 8.000000
-0.114863 -0.012166 0.388413
-0.124005 -0.006725 0.335891
-0.097684 -0.669130 3.240483
-0.052150 -0.085326 0.413218
-0.031284 0.082036 0.319378
-0.035081 0.075495 0.338606
1.252970 -1.185128 3.845296
0.939428 -1.153816 3.487908
0.482865 -0.424123 3.329538
1.476633 -1.290285 8.000000
-0.082222 0.078021 0.258293
-0.090982 0.074303 0.271363
1.330523 -0.859501 3.946429
-0.111073 0.077915 0.235878
-0.112479 0.072875 0.260766
1.605402 -0.890162 4.108225
1.587136 -0.919685 4.101204
3.913452 -1.006749 8.000000
3.272623 -0.870581 6.715979
3.656693 -0.194438 6.628886
4.397902 -0.295212 8.000000
-0.107795 0.068498 0.288418
-0.102148 0.070840 0.280408
-0.094013 0.069464 0.294836
-0.094901 0.067950 0.303015
-0.095052 0.068381 0.299873
-0.089683 0.066734 0.319134
-0.090720 0.065156 0.329479
-0.091971 0.065518 0.325089
1.795841 -0.838059 4.363142
1.766406 -0.848040 4.372030
1.674249 -0.831102 4.243309
3.203930 -1.092416 7.748581
2.891053 -1.091325 6.744946
1.839926 -0.713441 4.409428
-0.120853 0.072220 0.256993
-0.123421 0.072811 0.252301
-0.114893 0.075593 0.244319
-0.124722 0.072933 0.251075
-0.122295 0.068807 0.274416
-0.120956 0.068707 0.276100
-0.099493 0.067746 0.299574
-0.101835 0.068537 0.293259
-0.056327 0.066955 0.374404
-0.063222 0.065365 0.377496
0.870497 -2.021067 8.000000
0.870497 -2.111901 8.000000
0.495151 0.073055 2.859611
0.457228 0.073048 2.859344
0.464361 -0.644798 2.804387
0.445686 -0.648512 2.820542
1.430643 -0.961331 8.000000
1.430643 -1.067305 8.000000
0.821216 -0.936250 3.377108
0.661242 -0.828718 3.051726
1.124103 -0.915291 3.678106
1.112728 -0.938319 3.686538
2.520656 -1.763703 8.000000
1.092927 -0.841519 3.690350
3.565253 -0.885636 8.000000
3.048537 -0.842101 6.899143
2.985952 -1.091833 6.375265
3.010741 -1.111751 6.351207
4.519015 -0.870497 8.000000
3.639197 -0.742821 6.597168
4.534154 -0.719106 8.000000
4.413041 -0.855358 8.000000
4.519015 -0.537437 8.000000
3.710830 -0.517645 6.591355
-0.111895 0.072868 0.261056
-0.106770 0.075241 0.252442
-0.114690 0.070360 0.272386
-0.112744 0.069442 0.279054
-0.118686 0.068462 0.279365
-0.084275 0.070836 0.295905
-0.035572 0.069272 0.395737
-0.036717 0.069353 0.391965
-0.032840 0.069158 0.408329
0.211180 -0.396325 3.057392
0.303548 -0.394329 2.998226
1.400365 -1.309530 8.000000
0.612435 -0.687581 3.970939
0.600293 -0.718142 3.892210
0.648209 -0.740399 3.044762
1.596821 -0.535174 4.598442
1.482421 -0.819333 4.027564
4.519015 -0.295212 8.000000
-0.133278 0.071322 0.253797
-0.136846 0.070009 0.257804
-0.095364 0.072117 0.279189
-0.096264 0.070917 0.284982
-0.091803 0.071997 0.282869
-0.091641 0.069915 0.294386
-0.077212 0.067127 0.333074
-0.079284 0.066649 0.333834
-0.080434 0.064675 0.346971
-0.083179 0.064110 0.347467
0.481796 -0.656995 2.722966
0.464235 -0.790606 2.973543
0.705714 -0.765775 3.173814
0.728049 -0.812636 3.192744
1.206052 -0.690588 3.492156
3.217054 -1.339808 8.000000
3.368445 -1.521477 8.000000
1.822657 -0.880331 4.368043
3.217054 -1.672868 8.000000
-0.106410 0.070677 0.277682
-0.054095 0.045016 0.399797
-0.029736 0.072321 0.387988
-0.029076 0.071369 0.399089
-0.072294 0.061469 0.408584
-0.074897 0.060927 0.410138
-0.089342 0.076544 0.260117
-0.081496 0.074683 0.276946
-0.133593 0.072549 0.248138
-0.070949 0.073193 0.296380
-0.078757 0.068418 0.321373
-0.083432 0.068586 0.313796
2.005928 -2.217875 8.000000
0.513836 -0.622584 2.873313
0.771768 -0.753609 3.198654
0.914525 -0.841891 3.489283
1.313587 -0.859599 3.932825
1.374294 -0.210871 7.684906
1.360941 -0.211055 7.691627
1.430643 -0.249795 8.000000
1.415504 -0.249795 8.000000
1.430643 -1.324669 8.000000
0.438590 -0.389556 2.879081
1.352325 -0.609693 4.844844
1.350390 -0.736993 4.837910
0.175829 -0.653552 3.506183
0.080333 -0.645881 3.396074
-0.003093 -0.405169 3.268774
0.375288 -0.391967 2.937996
3.822617 -0.295212 8.000000
3.141758 -0.199989 6.818115
3.928591 -1.097583 8.000000
2.323848 -0.991610 8.000000
2.641769 -1.097583 8.000000
2.526971 -1.169196 7.972160
1.832097 -0.498901 4.430856
0.277724 -0.661737 3.623672
1.353264 -0.060042 4.881301
1.383717 -0.510274 4.858489
0.870497 -2.142179 8.000000
1.642590 -2.217875 8.000000
-0.055599 0.078057 0.289461
0.005332 0.116360 0.331473
-0.003119 0.053021 3.296236
0.013390 0.111329 0.404330
-0.040534 0.053006 3.295290
-0.108652 0.077350 0.239731
0.021039 -0.175323 7.411723
1.847409 -0.054707 4.447532
-0.111312 -0.003529 0.339027
-0.135867 -0.006216 0.312841
-0.120233 -0.176813 7.474716
-2.187597 -0.280073 8.000000
-0.095927 0.066043 0.315831
3.141073 -0.207685 6.816630
3.577365 -0.280073 8.000000
3.278535 -0.845376 6.717676
4.308313 -1.075946 7.974284
4.229172 -1.105675 7.927765
4.413041 -0.861413 8.000000
3.638949 -0.755254 6.596718
-0.107937 0.074762 0.254064
-0.106136 0.074951 0.256686
-0.058556 0.072638 0.318014
-0.057642 0.072037 0.325078
-0.060131 0.072072 0.318707
-0.010611 0.081647 0.463426
-0.011866 0.080922 0.471466
-0.014908 0.078953 0.466162
0.734362 -0.767108 3.204473
0.672970 -0.752823 3.057780
2.666930 -1.060418 7.993737
1.849204 -0.714181 4.403703
1.841766 -0.705162 4.409838
2.886939 -1.091357 6.729403
1.883769 -0.735965 4.414400
1.924021 -0.758198 4.369220
3.432029 -1.370087 8.000000
1.929351 -0.786093 4.358847
1.702473 -0.855672 4.261697
3.214027 -1.678924 8.000000
1.753551 -0.916458 4.414652
-0.134031 0.072693 0.248952
-0.133629 0.071465 0.254648
-0.121280 0.072378 0.257901
-0.122191 0.068911 0.274416
-0.081491 0.074862 0.278001
-0.086410 0.074118 0.277580
-0.082282 0.068218 0.317609
-0.087098 0.066985 0.322083
-1.863529 -0.166993 7.809291
-0.076906 0.064369 0.356176
-0.071659 0.073348 0.297465
-0.074587 0.061082 0.410138
-0.053314 -0.089131 0.434099
-0.055055 -0.088372 0.440137
-0.003832 0.168549 0.413305
-0.001057 0.170378 0.429755
-0.038034 0.049258 3.294863
0.012635 0.111293 0.399804
0.005085 0.213671 0.571702
0.154163 -0.396838 3.097530
1.415504 -0.952248 8.000000
0.513863 -0.417874 3.381602
0.481743 -0.657953 2.722668
0.458528 -0.745459 2.973025
1.415504 -1.079416 8.000000
0.437340 -0.388323 2.878024
1.360941 -0.199411 7.691627
1.198856 -0.201525 7.773202
0.491616 0.068535 2.851664
0.454594 0.068812 2.863201
0.918676 -0.827535 3.490002
1.126887 -0.913899 3.678106
1.103448 -0.931971 3.683508
1.116173 -0.818060 3.697952
1.307441 -0.858031 3.918864
1.601362 -0.888783 4.101859
3.086858 -1.787925 8.000000
1.573162 -0.823446 4.101194
1.435012 -0.836011 4.027132
1.847583 -0.044611 4.447950
3.486530 -1.097583 8.000000
3.559198 -0.897747 8.000000
3.045277 -0.838858 6.915458
3.656442 -0.201951 6.628431
4.376708 -0.298240 8.000000
-0.131130 -0.007714 0.326088
-0.133466 -0.006790 0.317551
-0.112283 0.069483 0.279220
-0.114913 0.070520 0.273407
-0.112083 0.067077 0.285163
-0.095951 0.068407 0.299491
-0.102293 0.068548 0.294258
-0.090852 0.071720 0.285600
-0.085471 0.071124 0.293856
-0.092194 0.069827 0.294017
-0.086924 -0.050740 0.434565
-0.086795 -0.053858 0.444000
-0.056556 0.067254 0.376874
-0.061036 0.066465 0.367774
-0.037475 -0.659185 3.246372
-0.068521 -0.674521 3.321898
0.459257 -0.647642 2.812130
0.452252 -0.658964 2.889783
1.415504 -1.315586 8.000000
0.494580 -0.517085 2.831555
0.600242 -0.685457 3.950038
0.642042 -0.742235 3.042841
0.494781 -0.671231 2.726372
1.275001 -0.716882 3.695851
1.256314 -0.738008 3.594361
1.138425 -0.710288 3.459356
3.250503 -0.757982 6.754523
-0.114751 0.075495 0.245201
-0.121174 0.073240 0.252793
-0.122298 0.073455 0.251563
-0.097723 -0.038487 0.429975
-0.098400 -0.034762 0.420355
-0.094659 -0.039971 0.424987
-0.063413 0.071787 0.320664
-0.068660 0.068275 0.339404
-0.063059 0.067444 0.351130
-0.070175 0.066590 0.350830
2.831080 -1.139513 6.929310
3.291426 -0.234997 7.713085
-0.101751 0.070730 0.281659
-0.104755 0.069092 0.288163
-0.110485 0.068586 0.286056
-0.091445 0.071676 0.285426
-0.096422 0.070874 0.284810
-0.094783 0.069590 0.295846
-0.079590 0.067093 0.333530
-0.077172 0.065764 0.346478
-0.080434 0.065069 0.346971
0.761409 -0.757781 3.195825
0.784694 -0.817414 3.201996
0.722271 -0.812630 3.183256
3.613698 -1.424587 8.000000
1.766406 -0.848040 4.372030
1.824310 -0.877025 4.368043
-0.022777 -0.401991 3.253072
-0.022751 -0.453179 3.249323
0.232213 -0.653810 3.536288
-0.000623 -0.638808 3.293343
2.214847 -1.006749 8.000000
1.339994 -0.740981 4.840041
-0.089327 0.074138 0.273010
-2.181541 -0.280073 8.000000
1.415504 -0.261906 8.000000
1.828092 -0.948799 4.425219
3.194031 -0.236867 7.774452
-0.110007 0.072247 0.266048
-0.026416 0.073281 0.463759
2.305682 -1.279252 8.000000
-0.079192 0.068568 0.322648
-0.101473 -0.033234 0.425234
-0.077258 -0.065411 0.447161
-0.077592 -0.062024 0.437592
-0.055887 0.070799 0.336745
3.831701 -0.280073 8.000000
2.778021 -0.934081 8.000000
2.323849 -0.988582 8.000000
2.533006 -1.166178 7.972160
1.425733 -0.970173 4.052745
-0.111812 0.075219 0.249831
-0.118333 0.071438 0.263067
3.922536 -1.097583 8.000000
3.013145 -1.102136 6.351207
-0.091681 0.065451 0.325367
-0.059504 0.068053 0.358539
-0.071300 0.065159 0.360549
-0.088592 0.068567 0.309419
3.123193 -1.351919 8.000000
-0.093730 -0.045732 0.443419
2.926977 -1.004263 7.085265
2.323849 -0.261906 8.000000
1.373972 -0.499543 4.843583
0.233016 -0.394466 3.025386
2.127264 -0.220266 7.811800
1.300577 -1.198773 3.898291
0.656648 -0.826143 3.046488
0.465056 -0.792338 2.971600
-0.056019 0.078076 0.289935
-0.071004 0.075197 0.284035
-0.029244 0.071628 0.401384
-0.030210 0.072702 0.473713
-0.054156 0.044692 0.396917
0.005190 0.115995 0.330434
-0.056914 0.008646 0.397295
-0.102792 0.077385 0.245898
0.339957 -0.731560 2.999079
1.909587 -0.784368 4.340174
-0.110984 0.075015 0.250097
-0.112610 0.074678 0.250556
-0.105764 0.074785 0.255786
-0.103954 0.070454 0.280985
-0.105422 0.070546 0.279241
-0.105517 0.069170 0.286679
-0.104973 0.068982 0.288163
-0.100569 0.070532 0.283434
-0.101835 0.069961 0.285480
-0.077965 0.071773 0.297467
-0.080314 0.071297 0.297831
-0.055539 -0.090304 0.448073
-0.976471 -1.642590 8.000000
-0.027804 0.072819 0.466426
-0.029571 0.071942 0.466463
-0.014639 0.079403 0.468818
-0.016414 0.078522 0.468856
-0.010259 0.081629 0.471428
-0.012863 0.080284 0.468780
-0.033733 -0.659321 3.241000
0.004868 0.213671 0.571702
0.004912 0.213383 0.576770
0.234690 -0.396944 3.062171
0.222926 -0.396634 3.059781
0.459357 -0.741170 2.978399
0.465308 -0.752953 2.980419
1.123562 -0.698604 3.402452
2.661859 -1.063235 7.969496
1.579123 -0.818661 4.100550
1.559048 -0.820347 4.108994
3.353306 -1.718285 8.000000
1.800143 -0.943324 4.353575
2.883930 -1.126834 6.728326
3.429001 -1.370087 8.000000
3.330800 -1.095561 7.770894
2.964740 -1.001336 6.916859
3.504697 -1.097583 8.000000
3.444140 -1.097583 8.000000
3.868034 -0.915914 8.000000
3.258907 -0.797189 6.740182
-0.135990 0.073190 0.244012
-0.135707 0.072205 0.248570
-0.132031 0.070757 0.256979
-0.133844 0.069757 0.260507
-0.119172 0.072948 0.254442
-0.120436 0.072066 0.258185
-0.109649 0.072683 0.263973
-0.112145 0.071641 0.267545
-0.110100 0.067817 0.290178
-0.112054 0.067887 0.288141
-0.110228 0.068520 0.286231
-0.113508 0.067996 0.286307
-0.085413 0.070946 0.294040
-0.088632 0.070179 0.295497
-0.035158 0.069014 0.458736
-0.041125 0.066232 0.457509
-0.066019 -0.675907 3.322531
-0.108489 -0.672632 3.275956
0.156846 -0.399514 3.127657
0.132959 -0.398878 3.122678
0.515365 -0.419334 3.383060
0.527875 -0.444695 3.381177
0.487002 -0.657067 2.723265
0.492717 -0.673295 2.726372
0.784536 -0.833001 3.201353
0.803860 -0.893533 3.384753
0.929382 -0.829449 3.520552
0.847270 -0.789720 3.379066
1.254953 -0.738008 3.594361
1.194193 -0.731071 3.496132
1.942658 -0.791147 4.377681
-0.121408 0.071453 0.260956
1.517968 -0.522642 4.502403
3.827296 -0.340979 8.000000
-0.057140 0.064471 0.415544
-0.055284 0.042458 0.386177
-0.102106 0.070060 0.285307
-0.085114 0.066970 0.325087
-0.051637 0.074735 0.311514
-0.063022 0.067290 0.355932
0.736029 -0.788115 3.203132
3.601270 -1.425901 8.000000
0.010273 0.108908 0.389703
0.010509 0.106898 0.398633
-0.043520 0.027159 3.298698
-0.114894 0.070852 0.269900
-0.048229 0.083401 0.281364
0.011811 -0.666560 3.142056
0.026358 -0.140385 7.012290
-0.135024 -0.004440 0.308986
-0.173840 -0.142085 7.097174
0.462263 0.055749 2.853890
0.473784 0.055587 2.845597
0.473624 0.036280 2.844640
0.968315 -1.148939 3.521282
0.935773 -1.138398 3.488977
2.876363 -1.068312 7.122819
1.622054 -0.707932 4.156318
3.447574 -1.037137 8.000000
1.842662 -0.602276 4.414775
-0.093229 0.070505 0.289786
-0.095788 0.067812 0.304149
0.426713 -0.655661 2.919592
0.490833 -0.649145 2.725961
1.175462 -0.138072 6.528217
0.967052 -0.139942 6.616628
0.628526 -0.452538 3.490672
0.460417 -0.428268 3.303459
1.114306 -0.903341 3.688384
0.912849 -0.878867 3.491783
2.850867 -0.982891 8.000000
1.512880 -0.522642 4.502403
1.853207 -0.093907 4.440041
2.929860 -0.206107 7.379205
0.736300 -0.724231 4.089221
0.535916 -0.699139 3.666766
0.602547 -0.683435 3.346393
1.371033 -0.102911 4.865789
2.326971 -0.215132 7.702339
2.053163 -0.219358 7.853655
2.593810 -1.128199 7.878285
2.416898 -1.199875 8.000000
3.501820 -0.928645 8.000000
2.953260 -1.057663 6.746801
3.556065 -0.331938 8.000000
1.319508 -1.174782 3.926920
2.633883 -2.501781 8.000000
0.729734 -0.785512 3.207283
-0.055793 0.041316 0.383676
-0.032223 0.019635 3.287198
0.032994 -0.660557 3.130433
0.451892 -0.783778 2.954785
0.073672 -0.147838 6.989995
-0.075026 -0.677594 3.211174
-0.050281 -0.084827 0.402001
-0.214463 -0.150470 7.114398
-2.085525 -0.277692 8.000000
0.012303 0.110437 0.398397
